ply
format ascii 1.0
element vertex 371
property float x
property float y
property float z
end_header
-40.090087890625 1277 -0.0
-40.090087890625 1278 -0.0
-40.090087890625 1279 -0.0
-40.090087890625 1280 -0.0
-46.090087890625 1311 -0.0
-47.090087890625 1312 -0.0
-47.090087890625 1313 -0.0
-47.090087890625 1314 -0.0
-47.090087890625 1315 -0.0
-47.090087890625 1316 -0.0
-47.090087890625 1317 -0.0
-47.090087890625 1318 -0.0
-47.090087890625 1319 -0.0
-44.78533494129041 1268 -27.32019360434313
-44.78533494129041 1269 -27.32019360434313
-45.73639145758556 1270 -27.90114470502751
-45.73639145758556 1271 -27.90114470502751
-45.73639145758556 1272 -27.90114470502751
-45.73639145758556 1273 -27.90114470502751
-45.73639145758556 1274 -27.90114470502751
-45.73639145758556 1275 -27.90114470502751
-45.73639145758556 1276 -27.90114470502751
-45.73639145758556 1277 -27.90114470502751
-46.687447973880715 1278 -28.482095805711886
-46.687447973880715 1279 -28.482095805711886
-46.687447973880715 1280 -28.482095805711886
-46.687447973880715 1281 -28.482095805711886
-46.687447973880715 1282 -28.482095805711886
-46.687447973880715 1283 -28.482095805711886
-37.17688281092918 1427 -22.678757028568384
-37.17688281092918 1428 -22.678757028568384
-37.17688281092918 1429 -22.678757028568384
-37.17688281092918 1430 -22.678757028568384
70.29250353042318 1324 -42.88228962967449
70.29250353042318 1325 -42.88228962967449
71.24356004671833 1326 -43.4632383727463
71.24356004671833 1327 -43.4632383727463
71.24356004671833 1328 -43.4632383727463
-36.47864738137565 1238 -49.76190161161466
-36.47864738137565 1239 -49.76190161161466
-36.47864738137565 1240 -49.76190161161466
-36.47864738137565 1241 -49.76190161161466
-36.47864738137565 1242 -49.76190161161466
-37.2876643757506 1243 -50.8669362715241
-37.2876643757506 1244 -50.8669362715241
-37.2876643757506 1245 -50.8669362715241
-37.2876643757506 1246 -50.8669362715241
-38.096681370125545 1247 -51.96609630771143
-38.096681370125545 1248 -51.96609630771143
-38.096681370125545 1249 -51.96609630771143
-38.905698364500495 1250 -53.07113096762087
-38.905698364500495 1251 -53.07113096762087
-39.714715358875445 1252 -54.17616562753031
-39.714715358875445 1253 -54.17616562753031
-40.52373235325039 1254 -55.281204771885335
-40.52373235325039 1255 -55.281204771885335
-41.33274934762534 1256 -56.38036032362708
-41.33274934762534 1257 -56.38036032362708
-42.14176634200028 1258 -57.485399467982106
-42.14176634200028 1259 -57.485399467982106
-42.14176634200028 1260 -57.485399467982106
-42.14176634200028 1261 -57.485399467982106
-42.95078333637523 1262 -58.59043412789155
-42.95078333637523 1263 -58.59043412789155
-42.95078333637523 1264 -58.59043412789155
-42.95078333637523 1265 -58.59043412789155
43.4431563361235 1522 -112.26729176590496
43.4431563361235 1523 -112.26729176590496
43.4431563361235 1524 -112.26729176590496
43.4431563361235 1525 -112.26729176590496
43.4431563361235 1526 -112.26729176590496
43.4431563361235 1527 -112.26729176590496
43.4431563361235 1528 -112.26729176590496
43.4431563361235 1529 -112.26729176590496
43.4431563361235 1530 -112.26729176590496
48.53608442564618 1221 -178.85173579354048
48.53608442564618 1222 -178.85173579354048
48.53608442564618 1223 -178.85173579354048
48.53608442564618 1224 -178.85173579354048
48.53608442564618 1225 -178.85173579354048
48.53608442564618 1226 -178.85173579354048
48.53608442564618 1227 -178.85173579354048
-10.808070938752458 1277 -128.12293274767552
-10.808070938752458 1278 -128.12293274767552
-10.808070938752458 1279 -128.12293274767552
-90.53702073549108 1289 -123.5054343416493
-90.53702073549108 1290 -123.5054343416493
-90.53702073549108 1291 -123.5054343416493
-90.53702073549108 1292 -123.5054343416493
-90.53702073549108 1293 -123.5054343416493
-90.53702073549108 1294 -123.5054343416493
-90.53702073549108 1295 -123.5054343416493
-90.53702073549108 1296 -123.5054343416493
-90.53702073549108 1297 -123.5054343416493
-89.72800374111614 1298 -122.40040416618545
-78.40176581986688 1283 106.94752486083723
-78.40176581986688 1284 106.94752486083723
-79.21078281424184 1285 108.05256400519225
-79.21078281424184 1286 108.05256400519225
-79.21078281424184 1287 108.05256400519225
-79.21078281424184 1288 108.05256400519225
-79.21078281424184 1289 108.05256400519225
-79.21078281424184 1290 108.05256400519225
-79.21078281424184 1291 108.05256400519225
-80.01979980861678 1292 109.15760314954728
-80.01979980861678 1293 109.15760314954728
-72.06118992266414 1314 135.2978089227316
-72.06118992266414 1315 135.2978089227316
-72.06118992266414 1316 135.2978089227316
-72.06118992266414 1317 135.2978089227316
-72.06118992266414 1318 135.2978089227316
-72.06118992266414 1319 135.2978089227316
-72.06118992266414 1320 135.2978089227316
-72.06118992266414 1321 135.2978089227316
-72.06118992266414 1322 135.2978089227316
-72.06118992266414 1323 135.2978089227316
7.96406486607524 1225 94.41312486046648
7.96406486607524 1226 94.41312486046648
7.96406486607524 1227 94.41312486046648
-0.3368556835654637 1105 -1.9496658130551563
-0.3368556835654637 1106 -1.9496658130551563
-0.3368556835654637 1107 -1.9496658130551563
-0.3368556835654637 1108 -1.9496658130551563
-0.3368556835654637 1109 -1.9496658130551563
-0.3368556835654637 1110 -1.9496658130551563
-0.027838689190516488 1111 -0.16167960947079768
-0.027838689190516488 1112 -0.16167960947079768
-0.027838689190516488 1113 -0.16167960947079768
-0.027838689190516488 1114 -0.16167960947079768
-0.027838689190516488 1115 -0.16167960947079768
0.28117830518443077 1116 1.6263066791446397
0.28117830518443077 1117 1.6263066791446397
0.28117830518443077 1118 1.6263066791446397
0.28117830518443077 1119 1.6263066791446397
0.590195299559378 1120 3.414292811869766
0.590195299559378 1121 3.414292811869766
0.590195299559378 1122 3.414292811869766
0.590195299559378 1123 3.414292811869766
0.590195299559378 1124 3.414292811869766
0.590195299559378 1125 3.414292811869766
0.8992122939343252 1126 5.192768615251466
0.8992122939343252 1127 5.192768615251466
0.8992122939343252 1128 5.192768615251466
0.8992122939343252 1129 5.192768615251466
0.8992122939343252 1130 5.192768615251466
0.8992122939343252 1131 5.192768615251466
0.8992122939343252 1132 5.192768615251466
0.8992122939343252 1133 5.192768615251466
0.8992122939343252 1134 5.192768615251466
0.590195299559378 1135 3.414292811869766
0.590195299559378 1136 3.414292811869766
0.590195299559378 1137 3.414292811869766
0.590195299559378 1138 3.414292811869766
0.590195299559378 1139 3.414292811869766
0.28117830518443077 1140 1.6263066791446397
0.28117830518443077 1141 1.6263066791446397
0.28117830518443077 1142 1.6263066791446397
0.28117830518443077 1143 1.6263066791446397
0.28117830518443077 1144 1.6263066791446397
0.28117830518443077 1145 1.6263066791446397
0.28117830518443077 1146 1.6263066791446397
-0.027838689190516488 1147 -0.16167960947079768
-0.027838689190516488 1148 -0.16167960947079768
-0.027838689190516488 1149 -0.16167960947079768
-0.027838689190516488 1150 -0.16167960947079768
-0.027838689190516488 1151 -0.16167960947079768
-0.027838689190516488 1152 -0.16167960947079768
-0.027838689190516488 1153 -0.16167960947079768
-0.027838689190516488 1154 -0.16167960947079768
-0.027838689190516488 1155 -0.16167960947079768
-0.027838689190516488 1156 -0.16167960947079768
-0.027838689190516488 1157 -0.16167960947079768
-0.027838689190516488 1158 -0.16167960947079768
-0.027838689190516488 1159 -0.16167960947079768
-0.027838689190516488 1160 -0.16167960947079768
-0.3368556835654637 1161 -1.9496658130551563
-0.3368556835654637 1162 -1.9496658130551563
-0.3368556835654637 1163 -1.9496658130551563
-0.6458726779404109 1164 -3.728141616436856
-0.6458726779404109 1165 -3.728141616436856
-0.9548896723153582 1166 -5.516127975911526
15.732028023931791 1216 90.91148890978076
15.732028023931791 1217 90.91148890978076
15.732028023931791 1218 90.91148890978076
15.732028023931791 1219 90.91148890978076
15.732028023931791 1220 90.91148890978076
15.732028023931791 1221 90.91148890978076
15.732028023931791 1222 90.91148890978076
15.732028023931791 1223 90.91148890978076
15.732028023931791 1224 90.91148890978076
15.732028023931791 1225 90.91148890978076
15.732028023931791 1226 90.91148890978076
15.732028023931791 1227 90.91148890978076
16.04104501830674 1228 92.68996720740743
16.04104501830674 1229 92.68996720740743
16.04104501830674 1230 92.68996720740743
16.04104501830674 1231 92.68996720740743
16.04104501830674 1232 92.68996720740743
16.04104501830674 1233 92.68996720740743
16.04104501830674 1234 92.68996720740743
16.04104501830674 1235 92.68996720740743
16.04104501830674 1236 92.68996720740743
16.04104501830674 1237 92.68996720740743
16.04104501830674 1238 92.68996720740743
16.04104501830674 1239 92.68996720740743
16.04104501830674 1240 92.68996720740743
16.350062012681686 1241 94.47795084588758
16.350062012681686 1242 94.47795084588758
16.350062012681686 1243 94.47795084588758
16.350062012681686 1244 94.47795084588758
16.350062012681686 1245 94.47795084588758
16.350062012681686 1246 94.47795084588758
16.659079007056633 1247 96.26594174035311
16.96809600143158 1248 98.05392537883327
17.27711299580653 1249 99.83240367645993
17.586129990181476 1250 101.62038731494009
17.586129990181476 1251 101.62038731494009
17.895146984556423 1252 103.40837820940563
17.895146984556423 1253 103.40837820940563
18.20416397893137 1254 105.19636184788577
18.20416397893137 1255 105.19636184788577
18.20416397893137 1256 105.19636184788577
18.513180973306316 1257 106.97484014551245
18.513180973306316 1258 106.97484014551245
18.822197967681266 1259 108.7628237839926
18.822197967681266 1260 108.7628237839926
18.822197967681266 1261 108.7628237839926
19.131214962056212 1262 110.55080742247276
19.131214962056212 1263 110.55080742247276
19.44023195643116 1264 112.33879831693828
19.44023195643116 1265 112.33879831693828
19.749248950806106 1266 114.11726935857958
19.749248950806106 1267 114.11726935857958
19.749248950806106 1268 114.11726935857958
20.058265945181052 1269 115.90526025304511
20.058265945181052 1270 115.90526025304511
20.058265945181052 1271 115.90526025304511
20.058265945181052 1272 115.90526025304511
20.058265945181052 1273 115.90526025304511
20.367282939556002 1274 117.69324389152527
20.367282939556002 1275 117.69324389152527
20.367282939556002 1276 117.69324389152527
20.367282939556002 1277 117.69324389152527
20.367282939556002 1278 117.69324389152527
20.67629993393095 1279 119.48122753000541
20.67629993393095 1280 119.48122753000541
20.67629993393095 1281 119.48122753000541
20.67629993393095 1282 119.48122753000541
20.67629993393095 1283 119.48122753000541
20.985316928305895 1284 121.25970582763209
20.985316928305895 1285 121.25970582763209
21.294333922680842 1286 123.04769672209763
21.294333922680842 1287 123.04769672209763
21.294333922680842 1288 123.04769672209763
21.294333922680842 1289 123.04769672209763
21.60335091705579 1290 124.83567310459239
21.60335091705579 1291 124.83567310459239
21.60335091705579 1292 124.83567310459239
21.60335091705579 1293 124.83567310459239
21.912367911430735 1294 126.62366399905792
21.912367911430735 1295 126.62366399905792
21.912367911430735 1296 126.62366399905792
21.912367911430735 1297 126.62366399905792
22.221384905805685 1298 128.40213504069922
22.221384905805685 1299 128.40213504069922
22.221384905805685 1300 128.40213504069922
22.221384905805685 1301 128.40213504069922
22.53040190018063 1302 130.19012593516476
22.53040190018063 1303 130.19012593516476
22.53040190018063 1304 130.19012593516476
22.53040190018063 1305 130.19012593516476
22.53040190018063 1306 130.19012593516476
22.53040190018063 1307 130.19012593516476
22.83941889455558 1308 131.9781168296303
22.83941889455558 1309 131.9781168296303
22.83941889455558 1310 131.9781168296303
22.83941889455558 1311 131.9781168296303
22.83941889455558 1312 131.9781168296303
22.83941889455558 1313 131.9781168296303
23.148435888930525 1314 133.76609321212504
23.148435888930525 1315 133.76609321212504
23.148435888930525 1316 133.76609321212504
23.148435888930525 1317 133.76609321212504
23.148435888930525 1318 133.76609321212504
23.45745288330547 1319 135.5445787657371
23.45745288330547 1320 135.5445787657371
23.45745288330547 1321 135.5445787657371
23.76646987768042 1322 137.33255514823188
24.69352086080526 1377 142.68700797880425
24.69352086080526 1378 142.68700797880425
24.69352086080526 1379 142.68700797880425
24.69352086080526 1380 142.68700797880425
24.69352086080526 1381 142.68700797880425
24.384503866430315 1382 140.90853693716295
24.384503866430315 1383 140.90853693716295
24.384503866430315 1384 140.90853693716295
24.075486872055368 1385 139.1205460426974
24.075486872055368 1386 139.1205460426974
24.075486872055368 1387 139.1205460426974
24.075486872055368 1388 139.1205460426974
24.075486872055368 1389 139.1205460426974
23.76646987768042 1390 137.33255514823188
23.76646987768042 1391 137.33255514823188
23.76646987768042 1392 137.33255514823188
23.76646987768042 1393 137.33255514823188
23.76646987768042 1394 137.33255514823188
23.76646987768042 1395 137.33255514823188
23.76646987768042 1396 137.33255514823188
23.76646987768042 1397 137.33255514823188
23.76646987768042 1398 137.33255514823188
23.76646987768042 1399 137.33255514823188
23.76646987768042 1400 137.33255514823188
23.45745288330547 1401 135.5445787657371
23.45745288330547 1402 135.5445787657371
23.45745288330547 1403 135.5445787657371
23.45745288330547 1404 135.5445787657371
23.45745288330547 1405 135.5445787657371
23.45745288330547 1406 135.5445787657371
23.45745288330547 1407 135.5445787657371
23.45745288330547 1408 135.5445787657371
23.45745288330547 1409 135.5445787657371
23.45745288330547 1410 135.5445787657371
23.45745288330547 1411 135.5445787657371
23.148435888930525 1412 133.76609321212504
23.148435888930525 1413 133.76609321212504
23.45745288330547 1414 135.5445787657371
23.45745288330547 1415 135.5445787657371
23.45745288330547 1416 135.5445787657371
23.45745288330547 1417 135.5445787657371
23.45745288330547 1418 135.5445787657371
23.45745288330547 1419 135.5445787657371
23.45745288330547 1420 135.5445787657371
23.45745288330547 1421 135.5445787657371
23.45745288330547 1422 135.5445787657371
21.695102001301986 1563 -56.064880179107796
21.695102001301986 1564 -56.064880179107796
53.322238994243506 1295 72.73842497119358
53.322238994243506 1296 72.73842497119358
53.322238994243506 1297 72.73842497119358
53.322238994243506 1298 72.73842497119358
53.322238994243506 1299 72.73842497119358
53.322238994243506 1300 72.73842497119358
53.322238994243506 1301 72.73842497119358
53.322238994243506 1302 72.73842497119358
53.322238994243506 1303 72.73842497119358
53.322238994243506 1304 72.73842497119358
54.131255988618456 1305 73.84345963110302
54.131255988618456 1306 73.84345963110302
54.131255988618456 1307 73.84345963110302
54.131255988618456 1308 73.84345963110302
56.5583069717433 1322 77.15268898710923
57.36732396611824 1323 78.25772813146426
57.36732396611824 1324 78.25772813146426
57.36732396611824 1325 78.25772813146426
57.36732396611824 1326 78.25772813146426
57.36732396611824 1327 78.25772813146426
57.36732396611824 1328 78.25772813146426
57.36732396611824 1329 78.25772813146426
57.36732396611824 1330 78.25772813146426
57.36732396611824 1331 78.25772813146426
55.74928997736835 1405 76.04765881164538
55.74928997736835 1406 76.04765881164538
55.74928997736835 1407 76.04765881164538
55.74928997736835 1408 76.04765881164538
55.74928997736835 1409 76.04765881164538
55.74928997736835 1410 76.04765881164538
54.940272982993406 1411 74.94261966729036
54.940272982993406 1412 74.94261966729036
-46.41260815609237 1202 44.40027225999675
-46.41260815609237 1203 44.40027225999675
-47.30361468028074 1204 45.25377315258495
