ply
format ascii 1.0
element vertex 1117
property float x
property float y
property float z
end_header
-1158.0864971004687 618 -706.4931965774114
-1158.0864971004687 619 -706.4931965774114
-1158.0864971004687 620 -706.4931965774114
54.51056117585202 1097 33.2533189532971
54.51056117585202 1098 33.2533189532971
54.51056117585202 1099 33.2533189532971
54.51056117585202 1100 33.2533189532971
54.51056117585202 1101 33.2533189532971
54.51056117585202 1102 33.2533189532971
54.51056117585202 1103 33.2533189532971
54.51056117585202 1104 33.2533189532971
54.51056117585202 1105 33.2533189532971
54.51056117585202 1106 33.2533189532971
54.51056117585202 1107 33.2533189532971
54.51056117585202 1108 33.2533189532971
54.51056117585202 1109 33.2533189532971
53.559504659556865 1110 32.675456325075416
53.559504659556865 1111 32.675456325075416
53.559504659556865 1112 32.675456325075416
53.559504659556865 1113 32.675456325075416
53.559504659556865 1114 32.675456325075416
53.559504659556865 1115 32.675456325075416
53.559504659556865 1116 32.675456325075416
9.810904909979802 1161 5.985659440380114
9.810904909979802 1162 5.985659440380114
10.761961426274956 1163 6.566611130467632
10.761961426274956 1164 6.566611130467632
10.761961426274956 1165 6.566611130467632
10.761961426274956 1166 6.566611130467632
9.810904909979802 1167 5.985659440380114
9.810904909979802 1168 5.985659440380114
9.810904909979802 1169 5.985659440380114
9.810904909979802 1170 5.985659440380114
8.859848393684649 1171 5.404707160889453
7.908791877389495 1172 4.823755176100363
6.9577353610943415 1173 4.2458934319834
6.006678844799188 1174 3.6649414471943107
-54.860938198090636 1175 -33.46962990631453
-56.763051230680944 1176 -34.628443635220584
-57.7141077469761 1177 -35.20939709351753
-58.66516426327125 1178 -35.790348194201904
-59.616220779566405 1179 -36.36821082242358
-60.56727729586156 1180 -36.94916192310796
-61.51833381215671 1181 -37.53011302379233
-61.51833381215671 1182 -37.53011302379233
-62.469390328451865 1183 -38.11106648208928
-62.469390328451865 1184 -38.11106648208928
-63.42044684474702 1185 -38.688926752698386
-63.42044684474702 1186 -38.688926752698386
-63.42044684474702 1187 -38.688926752698386
-63.42044684474702 1188 -38.688926752698386
-63.42044684474702 1189 -38.688926752698386
-64.37150336104217 1190 -39.26988021099533
-64.37150336104217 1191 -39.26988021099533
-64.37150336104217 1192 -39.26988021099533
-65.32255987733733 1193 -39.85083366929228
-65.32255987733733 1194 -39.85083366929228
-66.27361639363248 1195 -40.431782412364086
-66.27361639363248 1196 -40.431782412364086
-66.27361639363248 1197 -40.431782412364086
-66.27361639363248 1198 -40.431782412364086
-66.27361639363248 1199 -40.431782412364086
-66.27361639363248 1200 -40.431782412364086
-65.32255987733733 1201 -39.85083366929228
-65.32255987733733 1202 -39.85083366929228
-65.32255987733733 1203 -39.85083366929228
-65.32255987733733 1204 -39.85083366929228
-65.32255987733733 1205 -39.85083366929228
-65.32255987733733 1206 -39.85083366929228
-64.37150336104217 1207 -39.26988021099533
-64.37150336104217 1208 -39.26988021099533
-64.37150336104217 1209 -39.26988021099533
-64.37150336104217 1210 -39.26988021099533
-64.37150336104217 1211 -39.26988021099533
-64.37150336104217 1212 -39.26988021099533
-63.42044684474702 1213 -38.688926752698386
-63.42044684474702 1214 -38.688926752698386
-63.42044684474702 1215 -38.688926752698386
-63.42044684474702 1216 -38.688926752698386
-63.42044684474702 1217 -38.688926752698386
-63.42044684474702 1218 -38.688926752698386
-63.42044684474702 1219 -38.688926752698386
-63.42044684474702 1220 -38.688926752698386
-62.469390328451865 1221 -38.11106648208928
-62.469390328451865 1222 -38.11106648208928
-62.469390328451865 1223 -38.11106648208928
-61.51833381215671 1224 -37.53011302379233
-61.51833381215671 1225 -37.53011302379233
-60.56727729586156 1226 -36.94916192310796
-58.66516426327125 1227 -35.790348194201904
-54.860938198090636 1228 -33.46962990631453
-52.95882516550033 1229 -32.307727704945776
-50.10565561661487 1230 -30.56796051774278
-47.25248606772941 1231 -28.825104858077083
-45.3503730351391 1232 -27.66629112917103
-44.399316518843946 1233 -27.08534002848665
-44.399316518843946 1234 -27.08534002848665
-44.399316518843946 1235 -27.08534002848665
-44.399316518843946 1236 -27.08534002848665
-44.399316518843946 1237 -27.08534002848665
-44.399316518843946 1238 -27.08534002848665
-44.399316518843946 1239 -27.08534002848665
-44.399316518843946 1240 -27.08534002848665
-44.399316518843946 1241 -27.08534002848665
-44.399316518843946 1242 -27.08534002848665
-44.399316518843946 1243 -27.08534002848665
-43.44826000254879 1244 -26.50438657018971
-43.44826000254879 1245 -26.50438657018971
-43.44826000254879 1246 -26.50438657018971
-43.44826000254879 1247 -26.50438657018971
-42.49720348625364 1248 -25.9265262995806
-42.49720348625364 1249 -25.9265262995806
-42.49720348625364 1250 -25.9265262995806
-41.546146969958485 1251 -25.345572841283655
-41.546146969958485 1252 -25.345572841283655
-41.546146969958485 1253 -25.345572841283655
-40.59509045366333 1254 -24.764621740599278
-40.59509045366333 1255 -24.764621740599278
-40.59509045366333 1256 -24.764621740599278
-41.546146969958485 1257 -25.345572841283655
-41.546146969958485 1258 -25.345572841283655
-41.546146969958485 1259 -25.345572841283655
-42.49720348625364 1260 -25.9265262995806
-42.49720348625364 1261 -25.9265262995806
-43.44826000254879 1262 -26.50438657018971
-43.44826000254879 1263 -26.50438657018971
-44.399316518843946 1264 -27.08534002848665
-44.399316518843946 1265 -27.08534002848665
-45.3503730351391 1266 -27.66629112917103
-45.3503730351391 1267 -27.66629112917103
-45.3503730351391 1268 -27.66629112917103
-45.3503730351391 1269 -27.66629112917103
-46.30142955143425 1270 -28.247244587467975
-46.30142955143425 1271 -28.247244587467975
-46.30142955143425 1272 -28.247244587467975
-46.30142955143425 1273 -28.247244587467975
-46.30142955143425 1274 -28.247244587467975
-46.30142955143425 1275 -28.247244587467975
-46.30142955143425 1276 -28.247244587467975
-46.30142955143425 1277 -28.247244587467975
-47.25248606772941 1278 -28.825104858077083
-47.25248606772941 1279 -28.825104858077083
-47.25248606772941 1280 -28.825104858077083
-47.25248606772941 1281 -28.825104858077083
-47.25248606772941 1282 -28.825104858077083
-47.25248606772941 1283 -28.825104858077083
-47.25248606772941 1284 -28.825104858077083
-47.25248606772941 1285 -28.825104858077083
-47.25248606772941 1286 -28.825104858077083
-47.25248606772941 1287 -28.825104858077083
-47.25248606772941 1288 -28.825104858077083
-47.25248606772941 1289 -28.825104858077083
-47.25248606772941 1290 -28.825104858077083
-47.25248606772941 1291 -28.825104858077083
-47.25248606772941 1292 -28.825104858077083
-47.25248606772941 1293 -28.825104858077083
-47.25248606772941 1294 -28.825104858077083
-47.25248606772941 1295 -28.825104858077083
-47.25248606772941 1296 -28.825104858077083
-48.20354258402456 1297 -29.406058316374025
-48.20354258402456 1298 -29.406058316374025
-48.20354258402456 1299 -29.406058316374025
-48.20354258402456 1300 -29.406058316374025
-49.154599100319714 1301 -29.987009417058403
-49.154599100319714 1302 -29.987009417058403
-49.154599100319714 1303 -29.987009417058403
-49.154599100319714 1304 -29.987009417058403
-49.154599100319714 1305 -29.987009417058403
-49.154599100319714 1306 -29.987009417058403
-49.154599100319714 1307 -29.987009417058403
-49.154599100319714 1308 -29.987009417058403
-49.154599100319714 1309 -29.987009417058403
-49.154599100319714 1310 -29.987009417058403
-49.154599100319714 1311 -29.987009417058403
-49.154599100319714 1312 -29.987009417058403
-49.154599100319714 1313 -29.987009417058403
-49.154599100319714 1314 -29.987009417058403
-49.154599100319714 1315 -29.987009417058403
-49.154599100319714 1316 -29.987009417058403
-49.154599100319714 1317 -29.987009417058403
-49.154599100319714 1318 -29.987009417058403
-49.154599100319714 1319 -29.987009417058403
-50.10565561661487 1320 -30.56796051774278
-50.10565561661487 1321 -30.56796051774278
-50.10565561661487 1322 -30.56796051774278
-50.10565561661487 1323 -30.56796051774278
-50.10565561661487 1324 -30.56796051774278
-50.10565561661487 1325 -30.56796051774278
-50.10565561661487 1326 -30.56796051774278
-50.10565561661487 1327 -30.56796051774278
-50.10565561661487 1328 -30.56796051774278
-50.10565561661487 1329 -30.56796051774278
-50.10565561661487 1330 -30.56796051774278
-50.10565561661487 1331 -30.56796051774278
-50.10565561661487 1332 -30.56796051774278
-51.05671213291002 1333 -31.145823145964457
-51.05671213291002 1334 -31.145823145964457
-51.05671213291002 1335 -31.145823145964457
-52.007768649205175 1336 -31.726774246648834
-52.007768649205175 1337 -31.726774246648834
-52.007768649205175 1338 -31.726774246648834
-52.007768649205175 1339 -31.726774246648834
-93.85425536619194 1340 -57.254668340572245
-93.85425536619194 1341 -57.254668340572245
-93.85425536619194 1342 -57.254668340572245
-93.85425536619194 1343 -57.254668340572245
-93.85425536619194 1344 -57.254668340572245
-93.85425536619194 1345 -57.254668340572245
-93.85425536619194 1346 -57.254668340572245
-93.85425536619194 1347 -57.254668340572245
-93.85425536619194 1348 -57.254668340572245
-93.85425536619194 1349 -57.254668340572245
-92.90319884989678 1350 -56.67680806996314
-92.90319884989678 1351 -56.67680806996314
-91.95214233360163 1352 -56.09585461166619
-91.95214233360163 1353 -56.09585461166619
-91.95214233360163 1354 -56.09585461166619
-91.95214233360163 1355 -56.09585461166619
-91.95214233360163 1356 -56.09585461166619
-91.95214233360163 1357 -56.09585461166619
-91.95214233360163 1358 -56.09585461166619
-91.95214233360163 1359 -56.09585461166619
-91.95214233360163 1360 -56.09585461166619
-91.95214233360163 1361 -56.09585461166619
-91.95214233360163 1362 -56.09585461166619
-91.95214233360163 1363 -56.09585461166619
-91.95214233360163 1364 -56.09585461166619
-91.95214233360163 1365 -56.09585461166619
-91.95214233360163 1366 -56.09585461166619
-91.95214233360163 1367 -56.09585461166619
-91.95214233360163 1368 -56.09585461166619
-91.95214233360163 1369 -56.09585461166619
-91.95214233360163 1370 -56.09585461166619
-92.90319884989678 1371 -56.67680806996314
-92.90319884989678 1372 -56.67680806996314
-92.90319884989678 1373 -56.67680806996314
-92.90319884989678 1374 -56.67680806996314
-92.90319884989678 1375 -56.67680806996314
-92.90319884989678 1376 -56.67680806996314
-92.90319884989678 1377 -56.67680806996314
-92.90319884989678 1378 -56.67680806996314
-92.90319884989678 1379 -56.67680806996314
-93.85425536619194 1380 -57.254668340572245
-93.85425536619194 1381 -57.254668340572245
-93.85425536619194 1382 -57.254668340572245
-93.85425536619194 1383 -57.254668340572245
-93.85425536619194 1384 -57.254668340572245
-93.85425536619194 1385 -57.254668340572245
-93.85425536619194 1386 -57.254668340572245
-93.85425536619194 1387 -57.254668340572245
-93.85425536619194 1388 -57.254668340572245
-93.85425536619194 1389 -57.254668340572245
-93.85425536619194 1390 -57.254668340572245
-93.85425536619194 1391 -57.254668340572245
-93.85425536619194 1392 -57.254668340572245
-43.44826000254879 1393 -26.50438657018971
-43.44826000254879 1394 -26.50438657018971
-43.44826000254879 1395 -26.50438657018971
-43.44826000254879 1396 -26.50438657018971
-43.44826000254879 1397 -26.50438657018971
-43.44826000254879 1398 -26.50438657018971
-43.44826000254879 1399 -26.50438657018971
-43.44826000254879 1400 -26.50438657018971
-43.44826000254879 1401 -26.50438657018971
-43.44826000254879 1402 -26.50438657018971
-43.44826000254879 1403 -26.50438657018971
-43.44826000254879 1404 -26.50438657018971
-42.49720348625364 1405 -25.9265262995806
-42.49720348625364 1406 -25.9265262995806
-42.49720348625364 1407 -25.9265262995806
-42.49720348625364 1408 -25.9265262995806
-41.546146969958485 1409 -25.345572841283655
-41.546146969958485 1410 -25.345572841283655
-41.546146969958485 1411 -25.345572841283655
-41.546146969958485 1412 -25.345572841283655
-41.546146969958485 1413 -25.345572841283655
-40.59509045366333 1414 -24.764621740599278
-40.59509045366333 1415 -24.764621740599278
-40.59509045366333 1416 -24.764621740599278
-40.59509045366333 1417 -24.764621740599278
-39.64403393736818 1418 -24.1836706399149
-39.64403393736818 1419 -24.1836706399149
-38.692977421073024 1420 -23.605808011693227
-38.692977421073024 1421 -23.605808011693227
-38.692977421073024 1422 -23.605808011693227
-37.74192090477788 1423 -23.02485691100885
-37.74192090477788 1424 -23.02485691100885
-37.74192090477788 1425 -23.02485691100885
-37.74192090477788 1426 -23.02485691100885
-37.74192090477788 1427 -23.02485691100885
-37.74192090477788 1428 -23.02485691100885
-37.74192090477788 1429 -23.02485691100885
-37.74192090477788 1430 -23.02485691100885
-36.790864388482724 1431 -22.443903452711904
-36.790864388482724 1432 -22.443903452711904
-36.790864388482724 1433 -22.443903452711904
-36.790864388482724 1434 -22.443903452711904
-36.790864388482724 1435 -22.443903452711904
-35.83980787218757 1436 -21.862952352027527
-35.83980787218757 1437 -21.862952352027527
-34.88875135589242 1438 -21.285089723805854
-34.88875135589242 1439 -21.285089723805854
-33.93769483959726 1440 -20.704138623121477
-32.98663832330211 1441 -20.1231875224371
-32.035581807006956 1442 -19.54223524294644
-32.035581807006956 1443 -19.54223524294644
-31.0845252907118 1444 -18.964372614724763
-30.133468774416645 1445 -18.383421514040386
-30.133468774416645 1446 -18.383421514040386
-29.18241225812149 1447 -17.802469234549726
-29.18241225812149 1448 -17.802469234549726
-29.18241225812149 1449 -17.802469234549726
-29.18241225812149 1450 -17.802469234549726
-28.231355741826338 1451 -17.221516955059066
-28.231355741826338 1452 -17.221516955059066
-27.280299225531184 1453 -16.64365550564367
-27.280299225531184 1454 -16.64365550564367
-26.32924270923603 1455 -16.062703226153012
-26.32924270923603 1456 -16.062703226153012
-25.378186192940877 1457 -15.481750946662352
-24.427129676645723 1458 -14.900799845977975
-24.427129676645723 1459 -14.900799845977975
-23.47607316035057 1460 -14.322937217756298
-23.47607316035057 1461 -14.322937217756298
-106.21799007802893 1864 -64.79777430491875
-106.21799007802893 1865 -64.79777430491875
-106.21799007802893 1866 -64.79777430491875
-106.21799007802893 1867 -64.79777430491875
-1267.4579964744114 502 773.2161218608973
-1267.4579964744114 503 773.2161218608973
-1267.4579964744114 504 773.2161218608973
-1267.4579964744114 505 773.2161218608973
-1267.4579964744114 506 773.2161218608973
-1268.4090529907066 507 773.7971130409953
-1204.6882663989313 557 734.9227600599065
-1205.6393229152263 558 735.5036757964024
-1205.6393229152263 559 735.5036757964024
-1205.6393229152263 560 735.5036757964024
-1206.5903794315216 561 736.0846669765003
-1206.5903794315216 562 736.0846669765003
-1207.5414359478168 563 736.6655827129962
-1207.5414359478168 564 736.6655827129962
-1208.4924924641118 565 737.2434807054065
-1209.443548980407 566 737.8243964419023
-1210.394605496702 567 738.4053876220003
-1176.1565709100767 604 717.5189018125009
-1176.1565709100767 605 717.5189018125009
-1177.107627426372 606 718.0998929925988
-1158.0864971004687 611 706.4931965774114
-1158.0864971004687 612 706.4931965774114
-1158.0864971004687 613 706.4931965774114
-1158.0864971004687 614 706.4931965774114
-1158.0864971004687 615 706.4931965774114
-1158.0864971004687 616 706.4931965774114
-1158.0864971004687 617 706.4931965774114
-1158.0864971004687 618 706.4931965774114
-1158.0864971004687 619 706.4931965774114
-1158.0864971004687 620 706.4931965774114
-5.405999350742654 1085 3.2972113535568144
-5.405999350742654 1086 3.2972113535568144
-5.405999350742654 1087 3.2972113535568144
-4.4549428344475 1088 2.716259368767725
-4.4549428344475 1089 2.716259368767725
-4.4549428344475 1090 2.716259368767725
-4.4549428344475 1091 2.716259368767725
-4.4549428344475 1092 2.716259368767725
-4.4549428344475 1093 2.716259368767725
-4.4549428344475 1094 2.716259368767725
-4.4549428344475 1095 2.716259368767725
-4.4549428344475 1096 2.716259368767725
-4.4549428344475 1097 2.716259368767725
-4.4549428344475 1098 2.716259368767725
-4.4549428344475 1099 2.716259368767725
-4.4549428344475 1100 2.716259368767725
-4.4549428344475 1101 2.716259368767725
-4.4549428344475 1102 2.716259368767725
-4.4549428344475 1103 2.716259368767725
-4.4549428344475 1104 2.716259368767725
-3.503886318152347 1105 2.1383976246507617
-3.503886318152347 1106 2.1383976246507617
-3.503886318152347 1107 2.1383976246507617
-3.503886318152347 1108 2.1383976246507617
-3.503886318152347 1109 2.1383976246507617
-3.503886318152347 1110 2.1383976246507617
-3.503886318152347 1111 2.1383976246507617
-3.503886318152347 1112 2.1383976246507617
-3.503886318152347 1113 2.1383976246507617
-3.503886318152347 1114 2.1383976246507617
-4.4549428344475 1115 2.716259368767725
31.685204784768334 1116 -19.329012762391702
31.685204784768334 1117 -19.329012762391702
31.685204784768334 1118 -19.329012762391702
31.685204784768334 1119 -19.329012762391702
32.636261301063485 1120 -19.909965041882362
32.636261301063485 1121 -19.909965041882362
33.58731781735864 1122 -20.49091614256674
39.29365691512956 1123 -23.970448159360167
40.244713431424714 1124 -24.551399260044544
41.19576994771987 1125 -25.132352718341487
42.14682646401502 1126 -25.713303819025864
42.14682646401502 1127 -25.713303819025864
43.097882980310175 1128 -26.29116644724754
44.04893949660533 1129 -26.872117547931918
44.04893949660533 1130 -26.872117547931918
44.04893949660533 1131 -26.872117547931918
44.04893949660533 1132 -26.872117547931918
44.04893949660533 1133 -26.872117547931918
44.04893949660533 1134 -26.872117547931918
44.04893949660533 1135 -26.872117547931918
44.04893949660533 1136 -26.872117547931918
44.04893949660533 1137 -26.872117547931918
44.04893949660533 1138 -26.872117547931918
44.04893949660533 1139 -26.872117547931918
43.097882980310175 1140 -26.29116644724754
43.097882980310175 1141 -26.29116644724754
43.097882980310175 1142 -26.29116644724754
44.04893949660533 1143 -26.872117547931918
44.04893949660533 1144 -26.872117547931918
44.04893949660533 1145 -26.872117547931918
44.04893949660533 1146 -26.872117547931918
44.04893949660533 1147 -26.872117547931918
44.04893949660533 1148 -26.872117547931918
44.04893949660533 1149 -26.872117547931918
44.04893949660533 1150 -26.872117547931918
44.04893949660533 1151 -26.872117547931918
44.04893949660533 1152 -26.872117547931918
44.04893949660533 1153 -26.872117547931918
43.097882980310175 1154 -26.29116644724754
43.097882980310175 1155 -26.29116644724754
43.097882980310175 1156 -26.29116644724754
43.097882980310175 1157 -26.29116644724754
43.097882980310175 1158 -26.29116644724754
42.14682646401502 1159 -25.713303819025864
42.14682646401502 1160 -25.713303819025864
41.19576994771987 1161 -25.132352718341487
40.244713431424714 1162 -24.551399260044544
39.29365691512956 1163 -23.970448159360167
37.39154388253925 1164 -22.811634430454113
36.4404873662441 1165 -22.230683329769736
35.489430849948945 1166 -21.649729871472793
35.489430849948945 1167 -21.649729871472793
35.489430849948945 1168 -21.649729871472793
34.53837433365379 1169 -21.068778770788416
34.53837433365379 1170 -21.068778770788416
33.58731781735864 1171 -20.49091614256674
33.58731781735864 1172 -20.49091614256674
33.58731781735864 1173 -20.49091614256674
32.636261301063485 1174 -19.909965041882362
32.636261301063485 1175 -19.909965041882362
31.685204784768334 1176 -19.329012762391702
31.685204784768334 1177 -19.329012762391702
30.73414826847318 1178 -18.748060482901042
30.73414826847318 1179 -18.748060482901042
29.783091752178027 1180 -18.170199033485652
29.783091752178027 1181 -18.170199033485652
29.783091752178027 1182 -18.170199033485652
29.783091752178027 1183 -18.170199033485652
29.783091752178027 1184 -18.170199033485652
29.783091752178027 1185 -18.170199033485652
29.783091752178027 1186 -18.170199033485652
29.783091752178027 1187 -18.170199033485652
29.783091752178027 1188 -18.170199033485652
29.783091752178027 1189 -18.170199033485652
29.783091752178027 1190 -18.170199033485652
29.783091752178027 1191 -18.170199033485652
29.783091752178027 1192 -18.170199033485652
30.73414826847318 1193 -18.748060482901042
30.73414826847318 1194 -18.748060482901042
30.73414826847318 1195 -18.748060482901042
30.73414826847318 1196 -18.748060482901042
30.73414826847318 1197 -18.748060482901042
30.73414826847318 1198 -18.748060482901042
31.685204784768334 1199 -19.329012762391702
31.685204784768334 1200 -19.329012762391702
31.685204784768334 1201 -19.329012762391702
31.685204784768334 1202 -19.329012762391702
31.685204784768334 1203 -19.329012762391702
32.636261301063485 1204 -19.909965041882362
32.636261301063485 1205 -19.909965041882362
32.636261301063485 1206 -19.909965041882362
32.636261301063485 1207 -19.909965041882362
32.636261301063485 1208 -19.909965041882362
32.636261301063485 1209 -19.909965041882362
32.636261301063485 1210 -19.909965041882362
33.58731781735864 1211 -20.49091614256674
33.58731781735864 1212 -20.49091614256674
85.89542621359209 1213 -52.400013999467895
85.89542621359209 1214 -52.400013999467895
85.89542621359209 1215 -52.400013999467895
85.89542621359209 1216 -52.400013999467895
86.84648272988724 1217 -52.9809627425397
86.84648272988724 1218 -52.9809627425397
86.84648272988724 1219 -52.9809627425397
87.7975392461824 1220 -53.56191620083665
87.7975392461824 1221 -53.56191620083665
87.7975392461824 1222 -53.56191620083665
88.74859576247755 1223 -54.142869659133595
88.74859576247755 1224 -54.142869659133595
88.74859576247755 1225 -54.142869659133595
88.74859576247755 1226 -54.142869659133595
88.74859576247755 1227 -54.142869659133595
88.74859576247755 1228 -54.142869659133595
89.6996522787727 1229 -54.7207299297427
89.6996522787727 1230 -54.7207299297427
89.6996522787727 1231 -54.7207299297427
89.6996522787727 1232 -54.7207299297427
89.6996522787727 1233 -54.7207299297427
89.6996522787727 1234 -54.7207299297427
90.65070879506786 1235 -55.30168338803964
89.6996522787727 1236 -54.7207299297427
89.6996522787727 1237 -54.7207299297427
89.6996522787727 1238 -54.7207299297427
89.6996522787727 1239 -54.7207299297427
89.6996522787727 1240 -54.7207299297427
89.6996522787727 1241 -54.7207299297427
89.6996522787727 1242 -54.7207299297427
89.6996522787727 1243 -54.7207299297427
89.6996522787727 1244 -54.7207299297427
88.74859576247755 1245 -54.142869659133595
88.74859576247755 1246 -54.142869659133595
87.7975392461824 1247 -53.56191620083665
59.26584375732779 1248 -36.154988341868844
59.26584375732779 1249 -36.154988341868844
59.26584375732779 1250 -36.154988341868844
59.26584375732779 1251 -36.154988341868844
60.21690027362294 1252 -36.735939442553224
60.21690027362294 1253 -36.735939442553224
60.21690027362294 1254 -36.735939442553224
60.21690027362294 1255 -36.735939442553224
60.21690027362294 1256 -36.735939442553224
60.21690027362294 1257 -36.735939442553224
60.21690027362294 1258 -36.735939442553224
60.21690027362294 1259 -36.735939442553224
60.21690027362294 1260 -36.735939442553224
60.21690027362294 1261 -36.735939442553224
60.21690027362294 1262 -36.735939442553224
59.26584375732779 1263 -36.154988341868844
59.26584375732779 1264 -36.154988341868844
59.26584375732779 1265 -36.154988341868844
59.26584375732779 1266 -36.154988341868844
59.26584375732779 1267 -36.154988341868844
59.26584375732779 1268 -36.154988341868844
60.21690027362294 1269 -36.735939442553224
60.21690027362294 1270 -36.735939442553224
60.21690027362294 1271 -36.735939442553224
60.21690027362294 1272 -36.735939442553224
60.21690027362294 1273 -36.735939442553224
60.21690027362294 1274 -36.735939442553224
60.21690027362294 1275 -36.735939442553224
60.21690027362294 1276 -36.735939442553224
60.21690027362294 1277 -36.735939442553224
60.21690027362294 1278 -36.735939442553224
60.21690027362294 1279 -36.735939442553224
61.167956789918094 1280 -37.31689290085016
61.167956789918094 1281 -37.31689290085016
61.167956789918094 1282 -37.31689290085016
61.167956789918094 1283 -37.31689290085016
62.11901330621325 1284 -37.89475317145928
62.11901330621325 1285 -37.89475317145928
62.11901330621325 1286 -37.89475317145928
62.11901330621325 1287 -37.89475317145928
61.167956789918094 1288 -37.31689290085016
61.167956789918094 1289 -37.31689290085016
61.167956789918094 1290 -37.31689290085016
61.167956789918094 1291 -37.31689290085016
62.11901330621325 1292 -37.89475317145928
62.11901330621325 1293 -37.89475317145928
62.11901330621325 1294 -37.89475317145928
62.11901330621325 1295 -37.89475317145928
62.11901330621325 1296 -37.89475317145928
63.0700698225084 1297 -38.47570662975622
63.0700698225084 1298 -38.47570662975622
63.0700698225084 1299 -38.47570662975622
64.02112633880355 1300 -39.0566577304406
64.02112633880355 1301 -39.0566577304406
64.02112633880355 1302 -39.0566577304406
64.02112633880355 1303 -39.0566577304406
64.02112633880355 1304 -39.0566577304406
64.97218285509871 1305 -39.63761118873754
64.97218285509871 1306 -39.63761118873754
64.97218285509871 1307 -39.63761118873754
64.97218285509871 1308 -39.63761118873754
64.97218285509871 1309 -39.63761118873754
64.97218285509871 1310 -39.63761118873754
64.97218285509871 1311 -39.63761118873754
65.92323937139386 1312 -40.21547145934665
65.92323937139386 1313 -40.21547145934665
65.92323937139386 1314 -40.21547145934665
65.92323937139386 1315 -40.21547145934665
65.92323937139386 1316 -40.21547145934665
65.92323937139386 1317 -40.21547145934665
66.87429588768902 1318 -40.79642491764359
67.82535240398417 1319 -41.3773736607154
68.77640892027932 1320 -41.958327119012345
68.77640892027932 1321 -41.958327119012345
69.72746543657448 1322 -42.53618738962145
69.72746543657448 1323 -42.53618738962145
69.72746543657448 1324 -42.53618738962145
69.72746543657448 1325 -42.53618738962145
70.67852195286963 1326 -43.1171408479184
70.67852195286963 1327 -43.1171408479184
70.67852195286963 1328 -43.1171408479184
70.67852195286963 1329 -43.1171408479184
70.67852195286963 1330 -43.1171408479184
70.67852195286963 1331 -43.1171408479184
70.67852195286963 1332 -43.1171408479184
70.67852195286963 1333 -43.1171408479184
70.67852195286963 1334 -43.1171408479184
70.67852195286963 1335 -43.1171408479184
70.67852195286963 1336 -43.1171408479184
70.67852195286963 1337 -43.1171408479184
70.67852195286963 1338 -43.1171408479184
71.62957846916478 1339 -43.698094306215346
110.62289563726608 1340 -67.48622121293576
110.62289563726608 1341 -67.48622121293576
110.62289563726608 1342 -67.48622121293576
110.62289563726608 1343 -67.48622121293576
111.57395215356124 1344 -68.0671746712327
111.57395215356124 1345 -68.0671746712327
111.57395215356124 1346 -68.0671746712327
111.57395215356124 1347 -68.0671746712327
111.57395215356124 1348 -68.0671746712327
111.57395215356124 1349 -68.0671746712327
111.57395215356124 1350 -68.0671746712327
111.57395215356124 1351 -68.0671746712327
110.62289563726608 1352 -67.48622121293576
110.62289563726608 1353 -67.48622121293576
110.62289563726608 1354 -67.48622121293576
110.62289563726608 1355 -67.48622121293576
110.62289563726608 1356 -67.48622121293576
110.62289563726608 1357 -67.48622121293576
110.62289563726608 1358 -67.48622121293576
110.62289563726608 1359 -67.48622121293576
110.62289563726608 1360 -67.48622121293576
110.62289563726608 1361 -67.48622121293576
110.62289563726608 1362 -67.48622121293576
110.62289563726608 1363 -67.48622121293576
110.62289563726608 1364 -67.48622121293576
110.62289563726608 1365 -67.48622121293576
111.57395215356124 1366 -68.0671746712327
111.57395215356124 1367 -68.0671746712327
111.57395215356124 1368 -68.0671746712327
112.52500866985639 1369 -68.64503494184181
113.47606518615154 1370 -69.22598840013875
113.47606518615154 1371 -69.22598840013875
113.47606518615154 1372 -69.22598840013875
113.47606518615154 1373 -69.22598840013875
113.47606518615154 1374 -69.22598840013875
113.47606518615154 1375 -69.22598840013875
113.47606518615154 1376 -69.22598840013875
113.47606518615154 1377 -69.22598840013875
113.47606518615154 1378 -69.22598840013875
113.47606518615154 1379 -69.22598840013875
112.52500866985639 1380 -68.64503494184181
112.52500866985639 1381 -68.64503494184181
70.67852195286963 1382 -43.1171408479184
70.67852195286963 1383 -43.1171408479184
71.62957846916478 1384 -43.698094306215346
71.62957846916478 1385 -43.698094306215346
71.62957846916478 1386 -43.698094306215346
71.62957846916478 1387 -43.698094306215346
70.67852195286963 1388 -43.1171408479184
70.67852195286963 1389 -43.1171408479184
70.67852195286963 1390 -43.1171408479184
69.72746543657448 1391 -42.53618738962145
69.72746543657448 1392 -42.53618738962145
68.77640892027932 1393 -41.958327119012345
68.77640892027932 1394 -41.958327119012345
68.77640892027932 1395 -41.958327119012345
68.77640892027932 1396 -41.958327119012345
68.77640892027932 1397 -41.958327119012345
68.77640892027932 1398 -41.958327119012345
68.77640892027932 1399 -41.958327119012345
68.77640892027932 1400 -41.958327119012345
68.77640892027932 1401 -41.958327119012345
67.82535240398417 1402 -41.3773736607154
67.82535240398417 1403 -41.3773736607154
67.82535240398417 1404 -41.3773736607154
67.82535240398417 1405 -41.3773736607154
67.82535240398417 1406 -41.3773736607154
67.82535240398417 1407 -41.3773736607154
66.87429588768902 1408 -40.79642491764359
66.87429588768902 1409 -40.79642491764359
66.87429588768902 1410 -40.79642491764359
66.87429588768902 1411 -40.79642491764359
66.87429588768902 1412 -40.79642491764359
65.92323937139386 1413 -40.21547145934665
65.92323937139386 1414 -40.21547145934665
64.97218285509871 1415 -39.63761118873754
64.97218285509871 1416 -39.63761118873754
64.97218285509871 1417 -39.63761118873754
64.02112633880355 1418 -39.0566577304406
64.02112633880355 1419 -39.0566577304406
64.02112633880355 1420 -39.0566577304406
63.0700698225084 1421 -38.47570662975622
63.0700698225084 1422 -38.47570662975622
63.0700698225084 1423 -38.47570662975622
63.0700698225084 1424 -38.47570662975622
63.0700698225084 1425 -38.47570662975622
63.0700698225084 1426 -38.47570662975622
62.11901330621325 1427 -37.89475317145928
62.11901330621325 1428 -37.89475317145928
62.11901330621325 1429 -37.89475317145928
61.167956789918094 1430 -37.31689290085016
61.167956789918094 1431 -37.31689290085016
61.167956789918094 1432 -37.31689290085016
61.167956789918094 1433 -37.31689290085016
61.167956789918094 1434 -37.31689290085016
61.167956789918094 1435 -37.31689290085016
61.167956789918094 1436 -37.31689290085016
60.21690027362294 1437 -36.735939442553224
60.21690027362294 1438 -36.735939442553224
59.26584375732779 1439 -36.154988341868844
58.31478724103263 1440 -35.57403724118447
57.36373072473748 1441 -34.99617461296279
57.36373072473748 1442 -34.99617461296279
56.412674208442326 1443 -34.415223512278416
56.412674208442326 1444 -34.415223512278416
56.412674208442326 1445 -34.415223512278416
55.46161769214717 1446 -33.83427005398147
55.46161769214717 1447 -33.83427005398147
54.51056117585202 1448 -33.2533189532971
53.559504659556865 1449 -32.675456325075416
52.60844814326171 1450 -32.09450522439104
52.60844814326171 1451 -32.09450522439104
51.65739162696656 1452 -31.513554123706665
50.706335110671404 1453 -30.93260066540972
50.706335110671404 1454 -30.93260066540972
50.706335110671404 1455 -30.93260066540972
49.75527859437625 1456 -30.35474039480061
49.75527859437625 1457 -30.35474039480061
49.75527859437625 1458 -30.35474039480061
48.8042220780811 1459 -29.77378693650367
48.8042220780811 1460 -29.77378693650367
48.8042220780811 1461 -29.77378693650367
48.8042220780811 1462 -29.77378693650367
48.8042220780811 1463 -29.77378693650367
48.8042220780811 1464 -29.77378693650367
48.8042220780811 1465 -29.77378693650367
47.85316556178594 1466 -29.19283583581929
47.85316556178594 1467 -29.19283583581929
47.85316556178594 1468 -29.19283583581929
-1187.4303205372746 502 -1135.9659176037924
-1187.4303205372746 503 -1135.9659176037924
-1187.4303205372746 504 -1135.9659176037924
-1187.4303205372746 505 -1135.9659176037924
-1187.4303205372746 506 -1135.9659176037924
-1188.321327061463 507 -1136.8194773788152
-1128.6238899408424 557 -1079.7074503440754
-1128.6238899408424 558 -1079.7074503440754
-1129.5148964650307 559 -1080.5608992815742
-1129.5148964650307 560 -1080.5608992815742
-1130.4059029892192 561 -1081.414459056597
-1130.4059029892192 562 -1081.414459056597
-1131.2969095134074 563 -1082.2679079940958
-1131.2969095134074 564 -1082.2679079940958
-1132.1879160375959 565 -1083.1169234306203
-1132.1879160375959 566 -1083.1169234306203
-1133.0789225617843 567 -1083.9703723681191
-1144.662007376233 575 -1095.052351402777
-1145.5530139004213 576 -1095.9058003402756
-1146.4440204246098 577 -1096.7593601152987
-1146.4440204246098 578 -1096.7593601152987
-1101.8936942151913 603 -1054.1386743642374
-1101.8936942151913 604 -1054.1386743642374
-1101.8936942151913 605 -1054.1386743642374
-1101.8936942151913 606 -1054.1386743642374
-1084.9645702556124 611 -1037.9403243680372
-1084.9645702556124 612 -1037.9403243680372
-1084.9645702556124 613 -1037.9403243680372
-1084.9645702556124 614 -1037.9403243680372
-1084.9645702556124 615 -1037.9403243680372
-1084.9645702556124 616 -1037.9403243680372
-1084.9645702556124 617 -1037.9403243680372
-1084.9645702556124 618 -1037.9403243680372
-1084.9645702556124 619 -1037.9403243680372
47.50472198780324 1097 45.4444483311941
47.50472198780324 1098 45.4444483311941
47.50472198780324 1099 45.4444483311941
48.39572851199161 1100 46.29795268745494
48.39572851199161 1101 46.29795268745494
48.39572851199161 1102 46.29795268745494
48.39572851199161 1103 46.29795268745494
48.39572851199161 1104 46.29795268745494
48.39572851199161 1105 46.29795268745494
48.39572851199161 1106 46.29795268745494
48.39572851199161 1107 46.29795268745494
48.39572851199161 1108 46.29795268745494
48.39572851199161 1109 46.29795268745494
48.39572851199161 1110 46.29795268745494
48.39572851199161 1111 46.29795268745494
49.28673503617998 1112 47.15145358004314
53.74176765712181 1113 51.41442409550367
55.52378070549855 1114 53.11688846952697
56.414787229686915 1115 53.97038936211517
14.537480592833626 1164 13.905728626018327
7.409428399326683 1165 7.086791545069056
7.409428399326683 1166 7.086791545069056
7.409428399326683 1167 7.086791545069056
6.518421875138315 1168 6.237829362511193
6.518421875138315 1169 6.237829362511193
5.627415350949947 1170 5.384327171045756
5.627415350949947 1171 5.384327171045756
5.627415350949947 1172 5.384327171045756
5.627415350949947 1173 5.384327171045756
5.627415350949947 1174 5.384327171045756
5.627415350949947 1175 5.384327171045756
5.627415350949947 1176 5.384327171045756
5.627415350949947 1177 5.384327171045756
5.627415350949947 1178 5.384327171045756
6.518421875138315 1179 6.237829362511193
6.518421875138315 1180 6.237829362511193
8.30043492351505 1181 7.940293736534493
12.75546754445689 1182 12.203264251995027
13.646474068645258 1183 13.056766876419543
13.646474068645258 1184 13.056766876419543
13.646474068645258 1185 13.056766876419543
-47.83297610035213 1214 -45.75770288438963
-46.94196957616376 1215 -44.90873940295453
-46.94196957616376 1216 -44.90873940295453
-46.050963051975394 1217 -44.05523851036633
-46.050963051975394 1218 -44.05523851036633
-45.159956527787024 1219 -43.201737617778136
-44.268950003598654 1220 -42.3482332615173
-43.377943479410284 1221 -41.499273243754836
-42.48693695522192 1222 -40.645768887494
-41.59593043103355 1223 -39.7922679949058
-40.70492390684518 1224 -38.938763638644964
-39.81391738265682 1225 -38.0898036208825
-39.81391738265682 1226 -38.0898036208825
-38.92291085846845 1227 -37.236299264621664
-38.92291085846845 1228 -37.236299264621664
-38.92291085846845 1229 -37.236299264621664
-38.92291085846845 1230 -37.236299264621664
-38.92291085846845 1231 -37.236299264621664
-38.92291085846845 1232 -37.236299264621664
-38.92291085846845 1233 -37.236299264621664
-38.92291085846845 1234 -37.236299264621664
-38.92291085846845 1235 -37.236299264621664
-38.92291085846845 1236 -37.236299264621664
-38.92291085846845 1237 -37.236299264621664
-38.92291085846845 1238 -37.236299264621664
-38.92291085846845 1239 -37.236299264621664
-38.92291085846845 1240 -37.236299264621664
-38.92291085846845 1241 -37.236299264621664
-38.92291085846845 1242 -37.236299264621664
-39.81391738265682 1243 -38.0898036208825
-39.81391738265682 1244 -38.0898036208825
-39.81391738265682 1245 -38.0898036208825
-40.70492390684518 1246 -38.938763638644964
-40.70492390684518 1247 -38.938763638644964
-40.70492390684518 1248 -38.938763638644964
-40.70492390684518 1249 -38.938763638644964
-40.70492390684518 1250 -38.938763638644964
-40.70492390684518 1251 -38.938763638644964
-41.59593043103355 1252 -39.7922679949058
-41.59593043103355 1253 -39.7922679949058
-41.59593043103355 1254 -39.7922679949058
-42.48693695522192 1255 -40.645768887494
-42.48693695522192 1256 -40.645768887494
-42.48693695522192 1257 -40.645768887494
-42.48693695522192 1258 -40.645768887494
-42.48693695522192 1259 -40.645768887494
-43.377943479410284 1260 -41.499273243754836
-43.377943479410284 1261 -41.499273243754836
-43.377943479410284 1262 -41.499273243754836
-43.377943479410284 1263 -41.499273243754836
-43.377943479410284 1264 -41.499273243754836
-43.377943479410284 1265 -41.499273243754836
-43.377943479410284 1266 -41.499273243754836
-43.377943479410284 1267 -41.499273243754836
-43.377943479410284 1268 -41.499273243754836
-43.377943479410284 1269 -41.499273243754836
-43.377943479410284 1270 -41.499273243754836
-44.268950003598654 1271 -42.3482332615173
-44.268950003598654 1272 -42.3482332615173
-44.268950003598654 1273 -42.3482332615173
-44.268950003598654 1274 -42.3482332615173
-44.268950003598654 1275 -42.3482332615173
-44.268950003598654 1276 -42.3482332615173
-44.268950003598654 1277 -42.3482332615173
-45.159956527787024 1278 -43.201737617778136
-45.159956527787024 1279 -43.201737617778136
-45.159956527787024 1280 -43.201737617778136
-46.050963051975394 1281 -44.05523851036633
-46.050963051975394 1282 -44.05523851036633
-46.050963051975394 1283 -44.05523851036633
-46.94196957616376 1284 -44.90873940295453
-46.94196957616376 1285 -44.90873940295453
-46.94196957616376 1286 -44.90873940295453
-46.94196957616376 1287 -44.90873940295453
-47.83297610035213 1288 -45.75770288438963
-47.83297610035213 1289 -45.75770288438963
-47.83297610035213 1290 -45.75770288438963
-47.83297610035213 1291 -45.75770288438963
-47.83297610035213 1292 -45.75770288438963
-47.83297610035213 1293 -45.75770288438963
-48.7239826245405 1294 -46.61120377697783
-48.7239826245405 1295 -46.61120377697783
-48.7239826245405 1296 -46.61120377697783
-48.7239826245405 1297 -46.61120377697783
-48.7239826245405 1298 -46.61120377697783
-49.61498914872886 1299 -47.464708133238666
-49.61498914872886 1300 -47.464708133238666
-49.61498914872886 1301 -47.464708133238666
-49.61498914872886 1302 -47.464708133238666
-49.61498914872886 1303 -47.464708133238666
-49.61498914872886 1304 -47.464708133238666
-49.61498914872886 1305 -47.464708133238666
-50.50599567291723 1306 -48.31820902582687
-50.50599567291723 1307 -48.31820902582687
-50.50599567291723 1308 -48.31820902582687
-50.50599567291723 1309 -48.31820902582687
-50.50599567291723 1310 -48.31820902582687
-50.50599567291723 1311 -48.31820902582687
-50.50599567291723 1312 -48.31820902582687
-50.50599567291723 1313 -48.31820902582687
-50.50599567291723 1314 -48.31820902582687
-50.50599567291723 1315 -48.31820902582687
-50.50599567291723 1316 -48.31820902582687
-50.50599567291723 1317 -48.31820902582687
-50.50599567291723 1318 -48.31820902582687
-50.50599567291723 1319 -48.31820902582687
-50.50599567291723 1320 -48.31820902582687
-51.3970021971056 1321 -49.17170991841507
-51.3970021971056 1322 -49.17170991841507
-51.3970021971056 1323 -49.17170991841507
-51.3970021971056 1324 -49.17170991841507
-51.3970021971056 1325 -49.17170991841507
-51.3970021971056 1326 -49.17170991841507
-52.28800872129396 1327 -50.02067339985017
-52.28800872129396 1328 -50.02067339985017
-53.17901524548233 1329 -50.87417429243837
-53.17901524548233 1330 -50.87417429243837
-53.17901524548233 1331 -50.87417429243837
-54.0700217696707 1332 -51.7276786486992
-54.0700217696707 1333 -51.7276786486992
-54.0700217696707 1334 -51.7276786486992
-80.80021749532173 1335 -77.29641999181094
-81.6912240195101 1336 -78.14992434807176
-81.6912240195101 1337 -78.14992434807176
-83.47323706788684 1338 -79.85692613324817
-84.36424359207521 1339 -80.7058930783559
-86.14625664045195 1340 -82.4128948635323
-86.14625664045195 1341 -82.4128948635323
-87.03726316464031 1342 -83.26639921979313
-87.03726316464031 1343 -83.26639921979313
-87.92826968882868 1344 -84.1153592375556
-87.92826968882868 1345 -84.1153592375556
-87.92826968882868 1346 -84.1153592375556
-87.92826968882868 1347 -84.1153592375556
-88.81927621301705 1348 -84.96886359381644
-88.81927621301705 1349 -84.96886359381644
-88.81927621301705 1350 -84.96886359381644
-89.71028273720542 1351 -85.822361022732
-89.71028273720542 1352 -85.822361022732
-89.71028273720542 1353 -85.822361022732
-89.71028273720542 1354 -85.822361022732
-89.71028273720542 1355 -85.822361022732
-89.71028273720542 1356 -85.822361022732
-89.71028273720542 1357 -85.822361022732
-88.81927621301705 1358 -84.96886359381644
-88.81927621301705 1359 -84.96886359381644
-88.81927621301705 1360 -84.96886359381644
-88.81927621301705 1361 -84.96886359381644
-89.71028273720542 1362 -85.822361022732
-89.71028273720542 1363 -85.822361022732
-89.71028273720542 1364 -85.822361022732
-90.60128926139379 1365 -86.67586537899284
-90.60128926139379 1366 -86.67586537899284
-91.49229578558216 1367 -87.5248253967553
-91.49229578558216 1368 -87.5248253967553
-92.38330230977053 1369 -88.37832975301613
-92.38330230977053 1370 -88.37832975301613
-92.38330230977053 1371 -88.37832975301613
-92.38330230977053 1372 -88.37832975301613
-92.38330230977053 1373 -88.37832975301613
-92.38330230977053 1374 -88.37832975301613
-92.38330230977053 1375 -88.37832975301613
-92.38330230977053 1376 -88.37832975301613
-92.38330230977053 1377 -88.37832975301613
-92.38330230977053 1378 -88.37832975301613
-92.38330230977053 1379 -88.37832975301613
-92.38330230977053 1380 -88.37832975301613
-92.38330230977053 1381 -88.37832975301613
-92.38330230977053 1382 -88.37832975301613
-92.38330230977053 1383 -88.37832975301613
-92.38330230977053 1384 -88.37832975301613
-92.38330230977053 1385 -88.37832975301613
-91.49229578558216 1386 -87.5248253967553
-90.60128926139379 1387 -86.67586537899284
-89.71028273720542 1388 -85.822361022732
-88.81927621301705 1389 -84.96886359381644
-87.92826968882868 1390 -84.1153592375556
-87.03726316464031 1391 -83.26639921979313
-87.03726316464031 1392 -83.26639921979313
-86.14625664045195 1393 -82.4128948635323
-86.14625664045195 1394 -82.4128948635323
-43.377943479410284 1399 -41.499273243754836
-43.377943479410284 1400 -41.499273243754836
-43.377943479410284 1401 -41.499273243754836
-43.377943479410284 1402 -41.499273243754836
-43.377943479410284 1403 -41.499273243754836
-43.377943479410284 1404 -41.499273243754836
-43.377943479410284 1405 -41.499273243754836
-43.377943479410284 1406 -41.499273243754836
-43.377943479410284 1407 -41.499273243754836
-43.377943479410284 1408 -41.499273243754836
-42.48693695522192 1409 -40.645768887494
-42.48693695522192 1410 -40.645768887494
-42.48693695522192 1411 -40.645768887494
-42.48693695522192 1412 -40.645768887494
-41.59593043103355 1413 -39.7922679949058
-41.59593043103355 1414 -39.7922679949058
-41.59593043103355 1415 -39.7922679949058
-40.70492390684518 1416 -38.938763638644964
-40.70492390684518 1417 -38.938763638644964
-40.70492390684518 1418 -38.938763638644964
-40.70492390684518 1419 -38.938763638644964
-40.70492390684518 1420 -38.938763638644964
-40.70492390684518 1421 -38.938763638644964
-40.70492390684518 1422 -38.938763638644964
-39.81391738265682 1423 -38.0898036208825
-39.81391738265682 1424 -38.0898036208825
-39.81391738265682 1425 -38.0898036208825
-39.81391738265682 1426 -38.0898036208825
-38.92291085846845 1427 -37.236299264621664
-38.92291085846845 1428 -37.236299264621664
-38.92291085846845 1429 -37.236299264621664
-38.92291085846845 1430 -37.236299264621664
-38.03190433428008 1431 -36.38279837203346
-38.03190433428008 1432 -36.38279837203346
-38.03190433428008 1433 -36.38279837203346
-37.140897810091715 1434 -35.52929747944527
-37.140897810091715 1435 -35.52929747944527
-37.140897810091715 1436 -35.52929747944527
-36.249891285903345 1437 -34.68033399801016
-36.249891285903345 1438 -34.68033399801016
-35.358884761714975 1439 -33.82683310542197
-35.358884761714975 1440 -33.82683310542197
-35.358884761714975 1441 -33.82683310542197
-34.467878237526605 1442 -32.97332874916113
-34.467878237526605 1443 -32.97332874916113
-33.57687171333824 1444 -32.11982785657293
-33.57687171333824 1445 -32.11982785657293
-33.57687171333824 1446 -32.11982785657293
-33.57687171333824 1447 -32.11982785657293
-32.68586518914987 1448 -31.27086437513783
-32.68586518914987 1449 -31.27086437513783
-32.68586518914987 1450 -31.27086437513783
-31.794858664961506 1451 -30.417363482549632
-31.794858664961506 1452 -30.417363482549632
-30.903852140773136 1453 -29.563862589961435
-30.01284561658477 1454 -28.710359965536917
-29.1218390923964 1455 -27.861396484101814
-29.1218390923964 1456 -27.861396484101814
-28.230832568208033 1457 -27.007895591513616
-27.339826044019667 1458 -26.154392967089098
-27.339826044019667 1459 -26.154392967089098
-27.339826044019667 1460 -26.154392967089098
-27.339826044019667 1461 -26.154392967089098
-26.448819519831297 1462 -25.300890342664584
-26.448819519831297 1463 -25.300890342664584
-26.448819519831297 1464 -25.300890342664584
-26.448819519831297 1465 -25.300890342664584
-25.55781299564293 1466 -24.451928593065798
-25.55781299564293 1467 -24.451928593065798
-24.66680647145456 1468 -23.598425968641283
-23.775799947266194 1469 -22.744923344216765
-22.884793423077827 1470 -21.891422451628564
-21.993786898889457 1471 -21.042458970193465
-21.10278037470109 1472 -20.188958077605264
-1187.4303205372746 503 1135.9659176037924
-1187.4303205372746 504 1135.9659176037924
-1187.4303205372746 505 1135.9659176037924
-1187.4303205372746 506 1135.9659176037924
-1129.5148964650307 558 1080.5608992815742
-1129.5148964650307 559 1080.5608992815742
-1130.4059029892192 560 1081.414459056597
-1130.4059029892192 561 1081.414459056597
-1131.2969095134074 562 1082.2679079940958
-1131.2969095134074 563 1082.2679079940958
-1132.1879160375959 564 1083.1169234306203
-1132.1879160375959 565 1083.1169234306203
-1133.0789225617843 566 1083.9703723681191
-1133.9699290859726 567 1084.823932143142
-1135.7519421343493 568 1086.5263965171653
-1137.533955182726 569 1088.233405229687
-1139.3159682311027 570 1089.9404139422088
-1140.2069747552912 571 1090.789318541209
-1141.0979812794794 572 1091.642878316232
-1141.988987803668 573 1092.4963272537307
-1143.7710008520446 574 1094.198791627754
-1144.662007376233 575 1095.052351402777
-1145.5530139004213 576 1095.9058003402756
-1145.5530139004213 577 1095.9058003402756
-1146.4440204246098 578 1096.7593601152987
-1147.335026948798 579 1097.608264714299
-1148.2260334729865 580 1098.461824489322
-1149.1170399971747 581 1099.3152734268206
-1101.8936942151913 603 1054.1386743642374
-1101.8936942151913 604 1054.1386743642374
-1101.8936942151913 605 1054.1386743642374
-1102.7847007393798 606 1054.9922341392603
-1102.7847007393798 607 1054.9922341392603
-1084.9645702556124 611 1037.9403243680372
-1084.9645702556124 612 1037.9403243680372
-1084.9645702556124 613 1037.9403243680372
-1084.9645702556124 614 1037.9403243680372
-1084.9645702556124 615 1037.9403243680372
-1084.9645702556124 616 1037.9403243680372
-1084.9645702556124 617 1037.9403243680372
-1084.9645702556124 618 1037.9403243680372
-1084.9645702556124 619 1037.9403243680372
-4.1736564151221 1086 3.9905764753922526
-3.282649890933732 1087 3.1416142928343898
-3.282649890933732 1088 3.1416142928343898
